ply
format ascii 1.0
comment VCGLIB generated
element vertex 637
property float x
property float y
property float z
property float nx
property float ny
property float nz
property uchar red
property uchar green
property uchar blue
property uchar alpha
element face 0
property list uchar int vertex_indices
end_header
-0.151835 0.532583 0.201857 -0.909218 -0.227539 0.348637 255 255 255 255 
0.101607 0.239179 -0.225943 0.911847 -0.36148 -0.194596 255 255 255 255 
-0.0460762 0.159933 -0.140049 -0.349706 0.316884 -0.881641 255 255 255 255 
0.189292 -0.82333 -0.0506555 0.62256 0.27518 0.732595 255 255 255 255 
-0.302135 -0.910416 -0.21688 -0.942484 -0.101512 0.318462 255 255 255 255 
0.199261 0.256883 0.148745 0.930019 0.250891 0.26855 255 255 255 255 
0.173788 -0.92744 -0.232245 0.0627946 -0.968534 -0.240828 255 255 255 255 
0.197195 0.597489 -0.00858381 0.330601 -0.664483 0.670198 255 255 255 255 
-0.154425 0.630502 0.238632 -0.850111 -0.105806 0.515865 255 255 255 255 
-0.10816 -0.93619 -0.26764 0.0148429 -0.962375 -0.271319 255 255 255 255 
-0.184305 -0.844526 -0.468834 -0.266746 0.0304401 -0.963286 255 255 255 255 
-0.178884 -0.962058 -0.153385 -0.0896513 -0.971445 -0.219677 255 255 255 255 
0.205019 0.619649 -0.0175188 0.932993 0.352573 -0.07223 255 255 255 255 
-0.0326889 -0.97836 -0.0705124 -0.037779 -0.9681 -0.247698 255 255 255 255 
-0.0786431 0.7373 0.136207 0.355654 0.60919 -0.7088 255 255 255 255 
0.212281 0.184642 -0.0126738 0.916866 0.0695925 -0.393081 255 255 255 255 
-0.0602819 0.0380062 0.227449 -0.220296 -0.215599 0.951308 255 255 255 255 
0.129717 0.251322 -0.0963168 0.566518 0.43027 -0.702798 255 255 255 255 
-0.30421 -0.864405 -0.262829 -0.883669 0.422959 0.200586 255 255 255 255 
0.193364 0.305172 0.108751 0.844796 0.473102 0.249988 255 255 255 255 
-0.0544205 -0.679668 0.0159989 -0.153868 -0.305712 0.939609 255 255 255 255 
-0.12087 -0.61308 -0.330849 -0.276337 0.381114 -0.882264 255 255 255 255 
-0.13386 0.00988075 0.0844378 -0.96219 0.255585 -0.0941585 255 255 255 255 
0.0740389 0.275445 -0.295695 0.437114 -0.30026 -0.847806 255 255 255 255 
0.264058 -0.833494 -0.162928 0.818971 0.532042 0.214982 255 255 255 255 
0.180681 -0.972306 -0.0461851 0.032273 -0.958825 -0.282159 255 255 255 255 
0.186672 -0.938679 -0.185237 0.0736776 -0.96293 -0.259496 255 255 255 255 
0.222349 0.18599 0.123402 0.98113 0.0415778 0.188827 255 255 255 255 
-0.160627 -0.515618 -0.24407 -0.825655 0.269345 -0.495729 255 255 255 255 
-0.0782527 -0.172444 0.183247 -0.247517 -0.216991 0.944272 255 255 255 255 
-0.0558298 -0.930016 0.033333 -0.108929 0.334753 0.935989 255 255 255 255 
0.235383 -0.929571 -0.205346 0.0575538 -0.963363 -0.261954 255 255 255 255 
-0.00109227 -0.0278913 0.23104 -0.125361 -0.223348 0.966644 255 255 255 255 
-0.00988555 0.0192736 0.240362 -0.220835 -0.202119 0.954138 255 255 255 255 
0.15111 -0.657916 -0.0582017 0.841229 0.129165 0.525024 255 255 255 255 
-0.0375712 -0.9592 -0.156768 0.0541912 -0.976028 -0.210792 255 255 255 255 
0.220919 0.183343 0.0145534 0.973253 0.0597237 -0.221836 255 255 255 255 
-0.0507871 -0.642553 -0.331901 0.386885 0.327986 -0.861827 255 255 255 255 
0.161901 -0.17492 -0.117433 0.841663 -0.124209 -0.525524 255 255 255 255 
0.11108 -0.000462023 -0.164365 0.517036 0.110746 -0.848769 255 255 255 255 
0.0216474 -0.928922 -0.264057 0.0577201 -0.965667 -0.25329 255 255 255 255 
-0.0141347 -0.0443238 0.225959 -0.156762 -0.185841 0.969994 255 255 255 255 
0.216977 -0.878613 -0.376088 0.213038 -0.839675 -0.499561 255 255 255 255 
0.188272 -0.106642 -0.0516809 0.971781 -0.122839 -0.201375 255 255 255 255 
0.26115 -0.933695 -0.18484 0.0875026 -0.96047 -0.264275 255 255 255 255 
0.0938784 -0.121289 0.184536 0.396697 -0.320837 0.860055 255 255 255 255 
0.0727691 0.322856 -0.0816458 0.276656 0.674486 -0.684493 255 255 255 255 
0.0980618 -0.981314 -0.0439101 0.116373 -0.962209 -0.246192 255 255 255 255 
-0.237375 -0.901444 -0.35347 -0.0959476 -0.935445 -0.340201 255 255 255 255 
0.0640964 -0.105443 0.204229 0.278082 -0.299432 0.912694 255 255 255 255 
0.0756657 -0.0579173 0.216868 0.277517 -0.317681 0.906677 255 255 255 255 
0.0611972 0.308088 -0.260929 -0.552406 0.695774 0.459071 255 255 255 255 
0.240225 -0.873219 -0.0742971 0.71283 0.349935 0.607799 255 255 255 255 
-0.17135 -0.983874 -0.0348911 -0.355053 -0.93465 -0.0191585 255 255 255 255 
0.0507129 -0.660101 0.0156403 0.313873 -0.182724 0.931717 255 255 255 255 
0.0963889 0.326185 -0.294567 0.0741564 0.240029 -0.967929 255 255 255 255 
-0.131113 -0.137749 0.171915 -0.462618 -0.125447 0.877638 255 255 255 255 
-0.00552313 -0.991911 -0.0230804 -0.0175734 -0.970738 -0.239499 255 255 255 255 
-0.0651725 0.627324 0.244522 0.577685 -0.530631 0.620251 255 255 255 255 
0.304782 -0.896708 -0.274109 0.931985 -0.210588 -0.295052 255 255 255 255 
0.0357909 0.716996 0.218943 0.560041 -0.557279 0.613021 255 255 255 255 
0.00279538 -0.852705 0.0124256 -0.000487652 0.211681 0.977339 255 255 255 255 
-0.185978 -0.906501 -0.353216 -0.0682907 -0.936714 -0.343372 255 255 255 255 
0.144517 -0.0339517 -0.139653 0.735162 -0.001184 -0.67789 255 255 255 255 
0.128173 -0.595034 -0.0328365 0.763677 0.0511222 0.643571 255 255 255 255 
0.0661945 0.285449 0.269218 0.182834 0.413524 0.891947 255 255 255 255 
-0.124516 -0.969706 -0.124856 0.0185604 -0.982774 -0.183875 255 255 255 255 
0.20137 -0.869819 -0.0412607 0.557909 0.332698 0.760296 255 255 255 255 
0.255456 -0.926559 -0.212688 0.0676035 -0.962927 -0.261154 255 255 255 255 
-0.0404708 -0.890461 -0.392198 0.0401098 -0.92694 -0.37306 255 255 255 255 
0.280707 -0.930348 -0.0945049 0.823006 0.190559 0.535115 255 255 255 255 
-0.120804 0.0462872 0.0909929 -0.910072 0.412011 -0.0449033 255 255 255 255 
-0.292237 -0.920969 -0.266611 -0.15084 -0.959172 -0.239243 255 255 255 255 
0.0135318 0.699145 0.214839 0.571431 -0.818363 0.0612268 255 255 255 255 
-0.061764 0.32729 0.234997 -0.628779 -0.0132483 0.777471 255 255 255 255 
0.0685359 -0.966119 -0.112917 0.0642257 -0.960936 -0.269214 255 255 255 255 
0.0385245 0.231526 -0.287714 0.0411619 -0.533723 -0.844657 255 255 255 255 
-0.0905689 0.0440141 -0.153394 -0.655547 0.144708 -0.74116 255 255 255 255 
-0.0391057 -0.000304383 0.2284 -0.313085 -0.157233 0.936619 255 255 255 255 
0.23067 -0.924888 -0.224925 0.0743454 -0.968697 -0.236851 255 255 255 255 
-0.0692167 -0.024651 0.21407 -0.35709 -0.114775 0.926992 255 255 255 255 
0.25548 -0.874633 -0.35601 0.651018 -0.271349 -0.708904 255 255 255 255 
0.177636 0.256431 -0.0401508 0.832075 0.34402 -0.435088 255 255 255 255 
-0.243111 -0.77521 -0.223806 -0.852588 0.409305 0.324904 255 255 255 255 
-0.0204266 -0.174115 0.192936 -0.0520469 -0.272898 0.960634 255 255 255 255 
0.139802 0.333397 -0.247116 0.775487 -0.628489 0.0601755 255 255 255 255 
0.229238 0.173879 0.0595137 0.990228 0.136464 -0.0287539 255 255 255 255 
-0.0328205 -0.877958 -0.422023 0.0369636 -0.918222 -0.394337 255 255 255 255 
0.103002 -0.883578 0.0104453 0.224568 0.243072 0.943655 255 255 255 255 
0.166931 0.3659 -0.241412 0.800422 -0.520055 -0.298106 255 255 255 255 
-0.0384953 -0.963822 0.0464286 -0.115021 0.19168 0.974694 255 255 255 255 
0.29426 -0.863382 -0.210337 0.804557 0.591812 0.0494615 255 255 255 255 
0.050936 0.307291 -0.272775 -0.609985 0.778546 0.147595 255 255 255 255 
0.0995725 0.743783 0.132174 -0.0869481 0.911176 -0.402738 255 255 255 255 
-0.016343 -0.769046 0.00590845 0.0493678 -0.0226681 0.998523 255 255 255 255 
0.167007 0.325231 -0.00706596 0.771792 0.498725 -0.394476 255 255 255 255 
0.307969 -0.885999 -0.203345 0.901405 0.419825 0.105905 255 255 255 255 
0.228267 -0.91732 -0.257598 0.0772571 -0.966914 -0.243123 255 255 255 255 
0.0273916 -0.983415 -0.0588165 0.00620697 -0.964926 -0.262449 255 255 255 255 
0.174736 0.474251 -0.205675 0.0120819 0.642377 -0.766293 255 255 255 255 
0.138673 -0.4679 -0.144617 0.923171 0.120187 -0.365117 255 255 255 255 
0.0189507 -0.718067 -0.338165 0.311542 0.567034 -0.762505 255 255 255 255 
0.172506 0.00316373 -0.102958 0.821243 0.0135901 -0.570416 255 255 255 255 
-0.071798 -0.579831 -0.31983 0.192088 0.236155 -0.95254 255 255 255 255 
0.117397 0.076312 0.243026 0.41514 -0.210869 0.884982 255 255 255 255 
-0.00111767 -0.900222 0.0254623 -0.00802521 0.329261 0.944205 255 255 255 255 
0.000515177 -0.951041 0.0454487 -0.0369129 0.324366 0.945211 255 255 255 255 
0.16139 -0.0545975 -0.1176 0.820826 -0.0221477 -0.570749 255 255 255 255 
0.184921 -0.858739 -0.404373 0.37491 -0.134495 -0.917253 255 255 255 255 
0.135034 0.223449 0.255455 0.575677 0.0608288 0.815411 255 255 255 255 
-0.138499 -0.1132 0.169637 -0.562092 -0.0578197 0.825051 255 255 255 255 
0.066991 -0.528221 0.0385704 0.378654 -0.305073 0.873814 255 255 255 255 
-0.0927155 0.0272606 0.208072 -0.754912 0.0895403 0.649685 255 255 255 255 
-0.107442 -0.836286 -0.0034112 -0.337673 0.136789 0.931271 255 255 255 255 
0.0827211 0.356761 -0.048733 0.308489 0.612073 -0.728149 255 255 255 255 
0.182245 -0.829323 -0.389771 0.3885 0.636907 -0.665896 255 255 255 255 
0.090795 0.220357 -0.229489 0.825325 -0.505616 -0.251378 255 255 255 255 
0.130777 0.325981 0.209971 0.651344 0.580345 0.488826 255 255 255 255 
-0.00971872 0.132872 -0.15893 -0.145134 0.300709 -0.942608 255 255 255 255 
0.162614 0.0131948 -0.116635 0.794286 0.0350619 -0.606532 255 255 255 255 
-0.307019 -0.861952 -0.285533 -0.901023 0.423883 0.0920887 255 255 255 255 
0.103325 -0.903553 -0.332728 0.078072 -0.935309 -0.345111 255 255 255 255 
-0.158545 -0.948876 -0.212786 -0.0843271 -0.964865 -0.248848 255 255 255 255 
0.0196008 0.0172233 0.24428 -0.101006 -0.23165 0.967541 255 255 255 255 
0.204079 0.153459 -0.0367078 0.894137 0.0939196 -0.437833 255 255 255 255 
0.0343622 0.253404 -0.193287 -0.668282 0.743807 -0.0122456 255 255 255 255 
0.0716226 -0.281988 0.13329 0.418104 -0.374901 0.827429 255 255 255 255 
0.102584 -0.530491 0.0184657 0.655046 -0.175651 0.734889 255 255 255 255 
0.0311111 -0.991717 -0.0248565 0.0136197 -0.976368 -0.215684 255 255 255 255 
0.15703 0.356471 0.108082 0.778078 0.61324 0.136131 255 255 255 255 
-0.0362859 0.643937 0.188644 0.89068 -0.432291 -0.140761 255 255 255 255 
0.157295 -0.357965 -0.0828657 0.986163 -0.058197 -0.155229 255 255 255 255 
-0.0332086 -0.805982 0.00553862 -0.0297412 0.0376031 0.99885 255 255 255 255 
-0.0927435 -0.616816 -0.334787 0.0810801 0.326883 -0.94158 255 255 255 255 
0.0300699 0.0482828 0.253196 -0.0881406 -0.232104 0.968689 255 255 255 255 
0.00384785 -0.725335 0.0129227 0.0698829 -0.150782 0.986094 255 255 255 255 
0.158524 -0.354554 -0.0794029 0.98604 -0.0730262 -0.149644 255 255 255 255 
0.223733 0.220443 0.0573483 0.984699 0.174025 -0.0090814 255 255 255 255 
0.0707792 -0.75218 -0.00101414 0.135097 0.0280133 0.990436 255 255 255 255 
0.088184 -0.914714 -0.302144 0.062369 -0.958365 -0.278652 255 255 255 255 
0.0514293 -0.946733 -0.187265 0.0557249 -0.966601 -0.250156 255 255 255 255 
0.090647 -0.917673 0.0232244 0.223057 0.303316 0.926415 255 255 255 255 
0.206993 0.446739 -0.167622 0.865252 -0.37222 0.335844 255 255 255 255 
0.100484 -0.986846 -0.0203789 0.121988 -0.966689 -0.225016 255 255 255 255 
0.212265 0.108565 -0.0233762 0.939778 0.00976669 -0.341647 255 255 255 255 
-0.125802 0.620869 0.134159 -0.210437 0.0529381 -0.976173 255 255 255 255 
-0.163316 0.65803 0.207707 -0.99875 0.0498274 0.0040289 255 255 255 255 
0.0701457 -0.952721 -0.160819 0.0540978 -0.963746 -0.261279 255 255 255 255 
0.0507986 -0.830156 0.00661286 0.0607607 0.14677 0.987303 255 255 255 255 
0.108552 0.163252 -0.139843 0.453456 0.170681 -0.874783 255 255 255 255 
-0.0461489 -0.699043 0.012497 -0.0752438 -0.0606422 0.995319 255 255 255 255 
0.190299 -0.828656 -0.38349 0.450365 0.655371 -0.60635 255 255 255 255 
0.172745 -0.651271 -0.188996 0.90539 0.308809 -0.291387 255 255 255 255 
-0.160469 -0.954029 -0.192092 -0.0790565 -0.966559 -0.243955 255 255 255 255 
0.146545 0.22259 -0.0939357 0.666292 0.25019 -0.702467 255 255 255 255 
0.0224261 0.269122 -0.288481 -0.650834 0.298709 -0.697989 255 255 255 255 
0.0322605 -0.584607 0.0356011 0.252801 -0.323883 0.911697 255 255 255 255 
-0.0214192 0.274155 0.261033 -0.420865 0.124987 0.898471 255 255 255 255 
-0.140052 -0.41521 0.071644 -0.668121 -0.305417 0.67848 255 255 255 255 
-0.0765992 -0.920498 -0.314633 0.0533421 -0.950091 -0.30738 255 255 255 255 
-0.0154807 -0.685707 0.0173685 0.0135097 -0.311849 0.950036 255 255 255 255 
-0.164369 -0.558866 -0.0600266 -0.992069 -0.0825605 0.0947732 255 255 255 255 
0.106622 -0.933937 0.0238821 0.272411 0.256215 0.927441 255 255 255 255 
-0.0773579 0.325177 0.2213 -0.72324 -0.083471 0.685534 255 255 255 255 
0.239352 -0.809217 -0.294743 0.722754 0.62005 -0.305229 255 255 255 255 
0.117904 0.0947118 -0.147134 0.502321 0.0964438 -0.859286 255 255 255 255 
0.304975 -0.915469 -0.149851 0.956292 0.0367904 0.29009 255 255 255 255 
0.243784 -0.945319 -0.145744 0.0621245 -0.970562 -0.232701 255 255 255 255 
-0.12338 0.59986 0.252299 -0.144709 -0.415048 0.898217 255 255 255 255 
-0.149496 -0.936326 -0.26298 -0.0660799 -0.963535 -0.259293 255 255 255 255 
-0.0270387 0.709818 0.275293 0.56495 -0.409543 0.716314 255 255 255 255 
-0.0203365 -0.629838 -0.313858 0.404186 0.229638 -0.885381 255 255 255 255 
-0.0799723 -0.945565 -0.229642 0.063633 -0.96601 -0.250549 255 255 255 255 
-0.303899 -0.879149 -0.348808 -0.908758 -0.185294 -0.373933 255 255 255 255 
0.228802 -0.96517 -0.0307083 0.707557 -0.393326 0.587076 255 255 255 255 
0.0170423 0.709469 0.233755 0.688657 -0.531968 0.492708 255 255 255 255 
0.102145 0.244196 0.272102 0.372821 0.086598 0.923854 255 255 255 255 
0.0962485 -0.922589 -0.270991 0.0637661 -0.966095 -0.250188 255 255 255 255 
-0.173797 -0.754876 -0.396259 -0.416901 0.584143 -0.696398 255 255 255 255 
0.00588042 -0.164059 0.195608 0.0545206 -0.27369 0.960271 255 255 255 255 
-0.179019 -0.206704 0.0122895 -0.905191 0.13603 -0.402648 255 255 255 255 
0.131523 0.00691078 -0.149197 0.638226 0.0867993 -0.76494 255 255 255 255 
-0.0181174 -0.550362 -0.295679 0.37708 0.157906 -0.912621 255 255 255 255 
-0.109549 0.533014 0.219958 0.309947 -0.280683 0.908378 255 255 255 255 
-0.188263 -0.939547 -0.23687 -0.100825 -0.962609 -0.251431 255 255 255 255 
-0.130929 -0.105441 0.175361 -0.539476 -0.0641063 0.839557 255 255 255 255 
0.00533779 0.334769 -0.0774378 -0.202529 0.586326 -0.784349 255 255 255 255 
0.0929201 -0.932495 -0.232916 0.0626522 -0.967131 -0.24644 255 255 255 255 
0.196856 0.0849962 -0.0580094 0.887457 0.0291793 -0.459966 255 255 255 255 
-0.151454 -0.877161 -0.432557 -0.0241628 -0.923431 -0.383004 255 255 255 255 
-0.00918286 0.259737 -0.114181 -0.28228 0.356237 -0.890737 255 255 255 255 
-0.0974931 0.102437 0.14474 -0.981362 0.186829 0.0449808 255 255 255 255 
0.054234 -0.230497 0.163787 0.338068 -0.331419 0.880836 255 255 255 255 
0.150087 0.272477 0.230018 0.678876 0.338772 0.65143 255 255 255 255 
0.0342903 -0.888078 0.0206665 0.0562331 0.306129 0.950328 255 255 255 255 
0.189645 0.626273 0.0228693 0.56538 -0.528899 0.632939 255 255 255 255 
-0.196623 -0.919944 -0.307743 -0.0914611 -0.9592 -0.267526 255 255 255 255 
0.136682 0.330919 0.194688 0.649494 0.599005 0.468348 255 255 255 255 
0.132652 0.21839 0.257474 0.553406 0.0340633 0.832215 255 255 255 255 
-0.0806258 -0.95385 -0.195944 0.0675354 -0.972634 -0.222311 255 255 255 255 
0.169177 0.150301 0.219744 0.742962 -0.134661 0.655647 255 255 255 255 
0.04515 -0.651744 0.0179912 0.257325 -0.143893 0.955552 255 255 255 255 
0.0145705 -0.915283 -0.314957 0.0562222 -0.956117 -0.28754 255 255 255 255 
0.164194 0.349617 0.0939968 0.782407 0.616493 0.0881744 255 255 255 255 
-0.0979799 0.725772 0.123917 -0.0963264 0.29018 -0.952112 255 255 255 255 
0.156538 0.352377 -0.240889 0.745836 -0.662944 0.0650673 255 255 255 255 
0.0761278 -0.631806 -0.270762 0.40195 0.39528 -0.825948 255 255 255 255 
0.0531285 0.224745 0.283065 0.0218498 -0.0139779 0.999664 255 255 255 255 
0.0681011 0.294221 -0.21572 -0.78874 0.614475 -0.0175721 255 255 255 255 
0.0868289 0.288943 -0.172561 0.629717 0.626535 0.45925 255 255 255 255 
-0.0461705 -0.964032 -0.135198 0.0369813 -0.980268 -0.194181 255 255 255 255 
0.03188 -0.891048 -0.378761 0.078751 -0.925499 -0.370472 255 255 255 255 
-0.17866 -0.424609 0.00244522 -0.966994 -0.204219 0.152373 255 255 255 255 
0.00985241 0.707635 0.24172 0.679496 -0.489445 0.546562 255 255 255 255 
0.151906 -0.605923 -0.187614 0.847787 0.338165 -0.408537 255 255 255 255 
-0.303138 -0.853256 -0.314138 -0.874611 0.482039 -0.0519043 255 255 255 255 
-0.227932 -0.909922 -0.331476 -0.0964064 -0.949497 -0.298599 255 255 255 255 
0.205585 0.0991964 -0.0395988 0.910415 0.0173174 -0.413334 255 255 255 255 
-0.0950791 -0.973924 -0.0939992 0.0604504 -0.980331 -0.187875 255 255 255 255 
0.10437 -0.945807 0.0276994 0.307393 0.235982 0.921858 255 255 255 255 
0.102453 0.235896 -0.192271 0.957798 -0.279496 0.0671155 255 255 255 255 
0.195579 -0.0896433 -0.018974 0.98391 -0.154762 -0.0892754 255 255 255 255 
0.149411 -0.049109 -0.133543 0.766933 -0.0143924 -0.641566 255 255 255 255 
-0.0270117 -0.0196343 0.227593 -0.232518 -0.213737 0.948816 255 255 255 255 
-0.0644112 0.133101 -0.141024 -0.477398 0.294879 -0.82773 255 255 255 255 
0.199853 0.202168 0.182047 0.895374 0.0892451 0.43628 255 255 255 255 
0.0691918 -0.624042 0.0143052 0.248619 -0.0380211 0.967855 255 255 255 255 
0.0751396 0.346939 0.23692 0.346531 0.548003 0.76132 255 255 255 255 
-0.131743 -0.563815 -0.306035 -0.500111 0.327228 -0.801755 255 255 255 255 
0.0845083 -0.439193 -0.215793 0.674639 0.0706755 -0.734757 255 255 255 255 
0.218541 0.0415683 0.0334083 0.991423 -0.130161 0.011784 255 255 255 255 
0.228135 -0.874447 -0.0608547 0.646503 0.341314 0.682303 255 255 255 255 
-0.0594035 -0.0466852 -0.200882 -0.310264 0.346328 -0.885321 255 255 255 255 
-0.0527369 0.617018 0.216592 0.779068 -0.513156 0.360171 255 255 255 255 
0.220524 0.0950142 0.00725128 0.97987 -0.0222849 -0.19839 255 255 255 255 
-0.153666 -0.988889 -0.0188963 -0.232351 -0.972084 0.0326578 255 255 255 255 
-0.0702815 0.161773 -0.126899 -0.565001 0.309796 -0.764722 255 255 255 255 
-0.0104688 0.107308 0.256413 -0.342708 -0.143184 0.928466 255 255 255 255 
0.0990191 0.244795 -0.140269 0.988123 0.0432959 -0.147442 255 255 255 255 
-0.0333857 -0.953852 -0.179437 0.0675104 -0.972079 -0.224734 255 255 255 255 
0.0369181 -0.885196 -0.39226 0.0841341 -0.922604 -0.376461 255 255 255 255 
0.298648 -0.922139 -0.212049 0.371805 -0.891479 -0.258895 255 255 255 255 
0.0933177 -0.830881 -0.418266 0.139154 0.458725 -0.877615 255 255 255 255 
-0.25848 -0.804066 -0.228039 -0.842169 0.43411 0.319845 255 255 255 255 
-0.0187949 -0.958651 -0.154886 0.0453727 -0.973248 -0.225234 255 255 255 255 
-0.129993 -0.0641499 0.176162 -0.678524 0.0266536 0.734094 255 255 255 255 
-0.209389 -0.960209 -0.143092 -0.154234 -0.972457 -0.174757 255 255 255 255 
-0.0155796 0.320237 -0.0801431 -0.375878 0.540822 -0.752481 255 255 255 255 
-0.060634 -0.61854 0.0278262 -0.247483 -0.16852 0.954124 255 255 255 255 
-0.0251811 -0.972564 -0.0949888 -0.0207247 -0.972034 -0.233924 255 255 255 255 
0.0892585 0.208318 -0.177195 0.864402 -0.494513 -0.09092 255 255 255 255 
-0.10355 -0.22849 0.162175 -0.288589 -0.255766 0.922659 255 255 255 255 
0.0420261 0.256026 0.281305 -0.04972 0.125163 0.99089 255 255 255 255 
-0.280301 -0.914548 -0.296446 -0.105467 -0.959639 -0.26071 255 255 255 255 
0.171197 -0.969318 0.00915174 0.456542 -0.0680828 0.887093 255 255 255 255 
-0.0976663 0.123504 0.057722 -0.984089 0.171975 0.0446535 255 255 255 255 
-0.0876228 -0.0905497 0.197696 -0.322518 -0.172603 0.930694 255 255 255 255 
0.111844 -0.513639 0.0109624 0.773488 -0.0403562 0.632525 255 255 255 255 
0.0385139 0.297455 -0.277778 -0.631278 0.748033 -0.204781 255 255 255 255 
-0.0928414 0.358666 0.207838 -0.795489 -0.102209 0.597286 255 255 255 255 
0.173266 -0.975236 -0.0373761 0.0358944 -0.956538 -0.289389 255 255 255 255 
-0.138493 -0.50538 -0.275773 -0.675868 0.297371 -0.674369 255 255 255 255 
0.0914569 -0.78705 -0.00203284 0.212378 0.0640101 0.975089 255 255 255 255 
0.0148931 0.120299 -0.164702 0.00272865 0.270815 -0.962628 255 255 255 255 
0.0597602 -0.216167 0.166587 0.384723 -0.317283 0.866787 255 255 255 255 
0.12938 0.684897 0.13563 0.192535 -0.853021 0.485063 255 255 255 255 
-0.0777182 -0.892107 0.0176379 -0.147817 0.293209 0.944552 255 255 255 255 
0.23461 -0.901054 -0.309167 0.0641908 -0.939987 -0.335118 255 255 255 255 
-0.155134 -0.924164 -0.305312 -0.0576075 -0.954921 -0.291218 255 255 255 255 
-0.093558 -0.550879 0.0441347 -0.387669 -0.33415 0.859102 255 255 255 255 
-0.186675 -0.961735 -0.151287 -0.108037 -0.970581 -0.215175 255 255 255 255 
0.221269 0.232265 0.0651705 0.967952 0.249596 -0.0277691 255 255 255 255 
0.189882 -0.0996559 0.0315117 0.964387 -0.217631 0.150314 255 255 255 255 
-0.116938 0.638141 0.133242 -0.113752 0.0100755 -0.993458 255 255 255 255 
-0.0523558 -0.535293 -0.304817 0.268441 0.22538 -0.936559 255 255 255 255 
-0.0992493 -0.575455 -0.321056 -0.0766102 0.291012 -0.953647 255 255 255 255 
0.121683 0.71426 0.0780578 -0.344774 0.741186 -0.575999 255 255 255 255 
0.0238349 -0.59972 0.0312363 0.184342 -0.327071 0.926845 255 255 255 255 
-0.0270245 -0.919453 -0.308639 0.0502859 -0.960084 -0.275154 255 255 255 255 
0.226142 0.160259 0.0217706 0.950398 0.139764 -0.277867 255 255 255 255 
0.110254 0.111647 -0.148972 0.448273 0.142412 -0.88248 255 255 255 255 
-0.139943 -0.913325 -0.339157 -0.0128043 -0.939191 -0.343155 255 255 255 255 
-0.114081 -0.113293 -0.180073 -0.672095 0.0829342 -0.735806 255 255 255 255 
-0.166398 -0.181096 0.141972 -0.64607 -0.13358 0.751498 255 255 255 255 
0.0591403 -0.70677 0.0070619 0.15533 -0.0109191 0.987802 255 255 255 255 
-0.158622 -0.618764 -0.106361 -0.994148 0.00536817 0.107891 255 255 255 255 
0.157284 -0.0830788 -0.121679 0.829852 -0.0399059 -0.556556 255 255 255 255 
-0.0369317 -0.570656 -0.306968 0.353664 0.17608 -0.91865 255 255 255 255 
0.153261 0.451776 -0.216071 -0.466837 0.561016 -0.683611 255 255 255 255 
-0.308934 -0.86372 -0.308847 -0.927377 0.371211 -0.0466387 255 255 255 255 
0.194327 0.26581 -0.00704233 0.853504 0.313793 -0.416011 255 255 255 255 
-0.0728134 0.435898 0.0649209 -0.30318 0.642425 -0.703827 255 255 255 255 
-0.00968221 -0.165799 0.195628 -0.00287797 -0.270401 0.962744 255 255 255 255 
0.0230237 0.248456 -0.168963 -0.711484 0.685443 -0.154788 255 255 255 255 
0.214754 -0.901915 -0.0366429 0.57644 0.33065 0.747253 255 255 255 255 
0.157626 -0.967587 -0.0715376 0.0992154 -0.971232 -0.216485 255 255 255 255 
0.230314 0.159747 0.064849 0.998324 0.0577285 -0.00415068 255 255 255 255 
0.226306 0.163465 0.0927876 0.971361 0.138818 0.192843 255 255 255 255 
0.18773 0.258688 0.177847 0.877655 0.381729 0.289835 255 255 255 255 
0.120213 -0.213624 -0.176739 0.816335 -0.00426013 -0.577563 255 255 255 255 
-0.101189 -0.978516 -0.0729222 0.0467987 -0.978847 -0.199171 255 255 255 255 
0.107701 0.359851 0.195559 0.672317 0.603733 0.428364 255 255 255 255 
-0.194266 -0.916956 -0.318951 -0.0864023 -0.955965 -0.280474 255 255 255 255 
-0.176109 -0.839022 -0.469486 -0.255026 0.0793446 -0.963673 255 255 255 255 
-0.0434549 -0.736879 0.0113897 -0.0415865 -0.27551 0.960398 255 255 255 255 
0.0147918 -0.0421051 0.228724 -0.0405172 -0.249047 0.967643 255 255 255 255 
-0.281096 -0.826028 -0.339107 -0.816944 0.564481 -0.118168 255 255 255 255 
0.0363389 0.32252 -0.0898848 -0.003104 0.54817 -0.836361 255 255 255 255 
0.0908719 0.18484 0.274441 0.25357 -0.1134 0.960647 255 255 255 255 
0.108316 -0.96488 -0.104711 0.0913473 -0.965725 -0.242963 255 255 255 255 
-0.000967818 -0.731772 -0.357388 0.340554 0.577398 -0.742047 255 255 255 255 
0.242679 -0.795628 -0.249211 0.811555 0.56325 -0.155332 255 255 255 255 
0.141028 -0.943482 -0.179408 0.0626655 -0.963622 -0.25982 255 255 255 255 
0.0355702 0.739891 0.169347 -0.313449 0.465286 -0.827804 255 255 255 255 
0.188089 -0.801042 -0.351548 0.459167 0.692857 -0.555982 255 255 255 255 
-0.167602 -0.985566 -0.0277268 -0.354375 -0.932497 0.0697695 255 255 255 255 
0.0745272 0.24883 0.280067 0.190377 0.0942475 0.977177 255 255 255 255 
0.0965089 -0.563314 0.0105624 0.6486 -0.305306 0.697214 255 255 255 255 
-0.0529677 -0.913048 -0.334436 0.0422886 -0.951424 -0.304965 255 255 255 255 
0.0240646 0.107959 0.265846 -0.155226 -0.18001 0.97134 255 255 255 255 
0.258394 -0.902071 -0.301136 0.0800776 -0.943326 -0.322063 255 255 255 255 
0.198578 -0.0713917 0.0106021 0.978903 -0.198506 0.0484252 255 255 255 255 
0.111008 -0.801482 -0.392348 0.186589 0.693734 -0.695642 255 255 255 255 
0.150548 -0.238053 0.0567234 0.891765 -0.264392 0.367222 255 255 255 255 
-0.137663 -0.664009 -0.351005 -0.320845 0.428656 -0.844578 255 255 255 255 
-0.111268 -0.973443 0.0264212 -0.446115 -0.0761945 0.891726 255 255 255 255 
0.102436 0.209215 0.272537 0.340959 -0.0357136 0.9394 255 255 255 255 
-0.0448797 -0.87819 -0.422584 0.0381306 -0.917306 -0.396353 255 255 255 255 
0.0319212 -0.0237894 0.23397 -0.0192757 -0.262706 0.964683 255 255 255 255 
0.196629 0.125407 -0.0558035 0.881892 0.0586638 -0.467788 255 255 255 255 
0.263363 -0.891913 -0.0927555 0.757732 0.362396 0.54269 255 255 255 255 
-0.00987834 -0.948207 -0.196463 0.0652081 -0.969784 -0.23509 255 255 255 255 
0.169649 -0.681327 -0.0829231 0.8662 0.225498 0.445925 255 255 255 255 
0.203873 -0.957115 -0.104774 0.0572584 -0.973739 -0.22035 255 255 255 255 
0.189022 0.593111 -0.0112389 0.0541803 -0.737561 0.673103 255 255 255 255 
-0.252596 -0.906487 -0.334202 -0.100222 -0.946569 -0.306532 255 255 255 255 
0.161006 0.38823 -0.258111 0.633068 0.0463465 -0.772707 255 255 255 255 
0.0843467 -0.980924 -0.0519689 0.117088 -0.961014 -0.250484 255 255 255 255 
-0.0187924 0.695548 0.259877 0.555295 -0.466419 0.688549 255 255 255 255 
-0.0401199 -0.653498 -0.330957 0.409643 0.339475 -0.846729 255 255 255 255 
0.0178976 -0.645537 -0.300816 0.38124 0.266708 -0.885168 255 255 255 255 
0.177078 -0.658313 -0.12431 0.940772 0.28318 0.186433 255 255 255 255 
-0.157557 -0.599039 -0.0861662 -0.999233 -0.0364523 -0.01429 255 255 255 255 
0.103421 0.259212 -0.180339 0.950313 0.145046 0.27544 255 255 255 255 
0.130628 -0.714418 -0.0268614 0.640602 0.0822397 0.763456 255 255 255 255 
-0.0212595 -0.500533 0.0749135 0.0593093 -0.371068 0.92671 255 255 255 255 
-0.250554 -0.889416 -0.381533 -0.096596 -0.92602 -0.364906 255 255 255 255 
-0.0115726 -0.920142 0.0328315 -0.0381098 0.362677 0.931135 255 255 255 255 
0.226244 -0.965889 -0.0640401 0.0376048 -0.964988 -0.259586 255 255 255 255 
0.142946 -0.694367 -0.0401215 0.708002 0.103459 0.698591 255 255 255 255 
0.220718 0.107589 0.00753353 0.979312 -0.0113355 -0.202038 255 255 255 255 
-0.0282223 0.259973 -0.108211 -0.315033 0.346388 -0.883612 255 255 255 255 
0.284156 -0.927464 -0.101196 0.840607 0.203442 0.501987 255 255 255 255 
-0.146659 -0.734876 -0.0554318 -0.920908 -0.00614466 0.389732 255 255 255 255 
-0.15707 -0.865184 -0.0324409 -0.71815 0.228359 0.657353 255 255 255 255 
0.0886128 0.384471 -0.0191257 0.510732 0.655983 -0.555734 255 255 255 255 
0.243782 -0.966376 -0.0571971 0.352951 -0.933195 0.0676144 255 255 255 255 
-0.153552 0.573876 0.220739 -0.825652 -0.230225 0.515069 255 255 255 255 
-0.147706 -0.786518 -0.0497122 -0.859359 0.132429 0.493927 255 255 255 255 
0.28247 -0.938341 -0.160785 0.124512 -0.96143 -0.245253 255 255 255 255 
-0.162591 0.676125 0.22283 -0.981866 -0.109567 0.154709 255 255 255 255 
0.0332701 -0.990689 -0.0293655 0.0167926 -0.974855 -0.222209 255 255 255 255 
0.0225188 0.0662758 0.256667 -0.143442 -0.223737 0.964036 255 255 255 255 
0.0254853 -0.995996 -0.00496366 0.0186683 -0.981597 -0.19005 255 255 255 255 
0.124121 0.229742 0.261974 0.514309 0.0681578 0.854892 255 255 255 255 
0.243744 -0.946676 -0.139975 0.0616957 -0.971136 -0.230411 255 255 255 255 
-0.230077 -0.819501 -0.427434 -0.555685 0.586348 -0.589415 255 255 255 255 
0.202635 0.294625 0.0900642 0.93293 0.328733 0.146891 255 255 255 255 
0.099678 -0.825964 -0.41428 0.160066 0.508964 -0.845775 255 255 255 255 
0.151844 -0.770451 -0.341192 0.363635 0.6853 -0.630979 255 255 255 255 
-0.0766571 -0.0970124 0.200001 -0.280265 -0.189121 0.941108 255 255 255 255 
-0.292359 -0.929339 -0.206894 -0.698684 -0.710441 0.0843436 255 255 255 255 
-0.183623 -0.809982 -0.45061 -0.287978 0.594229 -0.750973 255 255 255 255 
-0.000736893 -0.734892 0.00963257 0.0726269 -0.309661 0.948069 255 255 255 255 
0.139349 -0.694425 -0.275323 0.461268 0.568305 -0.681367 255 255 255 255 
0.126444 -0.847021 -0.00538694 0.362998 0.191552 0.911888 255 255 255 255 
0.209341 0.165093 -0.0225461 0.916271 0.0918113 -0.389895 255 255 255 255 
-0.0594107 -0.641436 -0.335171 0.355988 0.337087 -0.871576 255 255 255 255 
-0.105816 0.675835 0.291463 -0.146831 -0.486021 0.861524 255 255 255 255 
0.117954 -0.753955 -0.339908 0.265885 0.655197 -0.707123 255 255 255 255 
-0.00517487 -0.649543 0.027695 0.0752096 -0.230564 0.970146 255 255 255 255 
0.0373261 -0.0338765 0.230984 0.0376605 -0.27508 0.960683 255 255 255 255 
-0.0464509 -0.982642 0.0449392 -0.147791 -0.417143 0.896744 255 255 255 255 
-0.0344363 -0.894811 -0.380728 0.0426457 -0.926562 -0.373717 255 255 255 255 
-0.0203625 -0.604659 0.0394706 0.0630985 -0.222504 0.972888 255 255 255 255 
0.22628 0.153405 0.105994 0.972812 0.0745911 0.219257 255 255 255 255 
0.0914665 -0.751249 -0.00481095 0.263904 0.0575533 0.96283 255 255 255 255 
-0.128664 0.699518 0.286786 -0.75965 -0.153172 0.632036 255 255 255 255 
0.218441 0.239237 0.0567699 0.947735 0.31313 -0.0612159 255 255 255 255 
0.127309 -0.980507 -0.0330976 0.115109 -0.965259 -0.234573 255 255 255 255 
0.201818 0.599954 -0.0648681 0.732578 0.573318 -0.366928 255 255 255 255 
-0.257982 -0.907979 -0.327683 -0.101882 -0.949843 -0.295667 255 255 255 255 
0.149034 0.366853 0.0574687 0.741656 0.659497 -0.122516 255 255 255 255 
0.0785607 -0.135159 0.18769 0.39035 -0.306722 0.868072 255 255 255 255 
0.182133 -0.883359 -0.02251 0.484209 0.338931 0.806639 255 255 255 255 
0.191839 -0.807012 -0.35587 0.47227 0.69134 -0.546818 255 255 255 255 
0.212359 -0.9538 -0.116981 0.0604365 -0.9724 -0.225358 255 255 255 255 
0.0994055 0.750898 0.156527 0.38918 0.921152 -0.00420109 255 255 255 255 
0.027157 -0.659929 0.0189137 0.144205 -0.234774 0.961294 255 255 255 255 
0.272644 -0.857459 -0.1412 0.794024 0.507198 0.335076 255 255 255 255 
0.183506 -0.0847487 -0.0737497 0.929967 -0.0788381 -0.359091 255 255 255 255 
0.14049 0.172593 0.249972 0.578878 -0.102435 0.808955 255 255 255 255 
-0.105934 0.514146 0.214553 0.348957 -0.153705 0.924448 255 255 255 255 
-0.0429843 -0.895342 -0.38034 0.0389296 -0.926452 -0.374394 255 255 255 255 
0.224025 0.13403 0.0158788 0.952128 -0.0400991 -0.303059 255 255 255 255 
0.161896 -0.791829 -0.35919 0.370587 0.704565 -0.605189 255 255 255 255 
0.0322953 -0.985929 -0.0492163 0.0141257 -0.967825 -0.251228 255 255 255 255 
-0.239262 -0.932827 -0.241929 -0.125048 -0.960499 -0.248606 255 255 255 255 
0.0145284 0.308595 -0.0960054 -0.103662 0.468542 -0.877338 255 255 255 255 
0.153407 0.151032 0.235842 0.671965 -0.142124 0.726818 255 255 255 255 
-0.110613 -0.854882 -0.469472 0.0852862 -0.5019 -0.86071 255 255 255 255 
0.0593374 -0.962562 0.0453972 0.178904 0.225412 0.957697 255 255 255 255 
-0.159406 -0.112892 0.15008 -0.762799 0.0667269 0.643184 255 255 255 255 
0.0244111 -0.770309 -0.381751 0.210053 0.661643 -0.719796 255 255 255 255 
0.123273 -0.974986 -0.0579319 0.1124 -0.964672 -0.238273 255 255 255 255 
-0.223474 -0.957818 -0.143924 -0.159419 -0.973603 -0.163349 255 255 255 255 
0.150726 -0.814066 -0.0241205 0.518029 0.171493 0.837995 255 255 255 255 
0.0882885 0.337649 -0.283564 -0.56593 0.669312 -0.481399 255 255 255 255 
0.0534459 0.22141 -0.276316 0.297547 -0.620958 -0.725174 255 255 255 255 
0.163899 0.381221 -0.215182 0.561506 -0.781259 0.272663 255 255 255 255 
0.300452 -0.885022 -0.2821 0.910606 0.305213 -0.278644 255 255 255 255 
0.208123 0.269268 0.108452 0.938438 0.26129 0.225968 255 255 255 255 
-0.0861781 0.419513 0.0642138 -0.313652 0.632551 -0.708168 255 255 255 255 
-0.312285 -0.897579 -0.264352 -0.998527 -0.0298958 0.0452846 255 255 255 255 
-0.0604181 -0.869953 -0.442261 0.0489725 -0.89243 -0.44852 255 255 255 255 
0.207102 0.278525 0.0972683 0.948391 0.303005 0.0934965 255 255 255 255 
-0.10034 0.104828 0.0950851 -0.973049 0.230021 0.016328 255 255 255 255 
-0.129111 0.635353 0.264285 -0.400651 -0.307143 0.863216 255 255 255 255 
0.102088 -0.938846 -0.206009 0.0610546 -0.965536 -0.253007 255 255 255 255 
0.168481 0.346497 0.0677158 0.680074 0.732716 0.0250479 255 255 255 255 
0.0120828 0.235896 -0.16235 -0.873246 0.482499 -0.0680851 255 255 255 255 
0.0193814 -0.90572 -0.343757 0.0680666 -0.940802 -0.332052 255 255 255 255 
-0.10617 0.647596 0.275419 -0.0318587 -0.488044 0.872238 255 255 255 255 
0.0729203 -0.767636 -0.000177322 0.135057 0.0744326 0.988038 255 255 255 255 
-0.12664 -0.85351 -0.00851081 -0.458538 0.198233 0.866283 255 255 255 255 
-0.0786935 -0.0306717 0.209606 -0.3664 -0.101764 0.924876 255 255 255 255 
-0.0879857 0.735273 0.130072 0.195604 0.576297 -0.793487 255 255 255 255 
-0.141628 -0.896768 -0.382376 -0.00795535 -0.933139 -0.359427 255 255 255 255 
-0.144301 -0.945457 -0.230303 -0.0649001 -0.964961 -0.254242 255 255 255 255 
0.114082 -0.958395 0.0274515 0.310686 0.228235 0.922704 255 255 255 255 
-0.095394 -0.963105 -0.155305 0.0479432 -0.982272 -0.181229 255 255 255 255 
0.195739 0.64047 0.0226833 0.899438 -0.0261258 0.436267 255 255 255 255 
-0.156558 -0.978937 -0.071345 -0.0659203 -0.985454 -0.156636 255 255 255 255 
0.229679 0.15711 0.050212 0.997417 0.0509943 -0.0505818 255 255 255 255 
-0.270837 -0.899203 -0.350176 -0.107107 -0.937355 -0.331503 255 255 255 255 
-0.0896881 -0.983609 0.0344235 -0.3014 -0.390977 0.869652 255 255 255 255 
0.0873839 0.292308 -0.177547 0.602102 0.647506 0.467129 255 255 255 255 
0.00107174 -0.0557429 0.224577 -0.0422121 -0.248398 0.967738 255 255 255 255 
-0.0901191 0.174254 0.0724876 -0.994147 0.0927927 0.0553309 255 255 255 255 
-0.133922 0.687589 0.27792 -0.733011 -0.171465 0.658251 255 255 255 255 
0.188756 0.185591 -0.0560823 0.840614 0.159247 -0.517696 255 255 255 255 
0.204388 -0.0460187 0.00307474 0.982572 -0.185521 -0.0115553 255 255 255 255 
-0.294776 -0.862024 -0.237877 -0.833269 0.442722 0.331149 255 255 255 255 
-0.222136 -0.919469 -0.300746 -0.0926266 -0.960923 -0.260857 255 255 255 255 
0.00703034 -0.530543 0.0591864 0.220286 -0.336761 0.91546 255 255 255 255 
0.081373 0.7344 0.140569 -0.5781 0.390143 -0.716651 255 255 255 255 
-0.155112 0.705133 0.250076 -0.826095 -0.0249884 0.562976 255 255 255 255 
0.177447 0.338127 0.0762261 0.675266 0.730205 0.104003 255 255 255 255 
0.217011 0.119238 -0.00856421 0.959628 0.0157576 -0.28083 255 255 255 255 
0.25781 -0.943971 -0.146682 0.0807127 -0.968303 -0.236377 255 255 255 255 
0.0633668 0.289588 0.267854 0.191613 0.399375 0.89654 255 255 255 255 
-0.0898916 0.534837 0.209846 0.578367 -0.206184 0.789291 255 255 255 255 
0.155764 -0.833544 -0.0229825 0.506286 0.194264 0.8402 255 255 255 255 
0.165828 -0.130202 -0.103299 0.881745 -0.0478763 -0.469291 255 255 255 255 
0.31337 -0.905406 -0.203678 0.995886 -0.0890292 -0.0168598 255 255 255 255 
0.133192 0.38242 0.105272 0.685972 0.715332 0.1332 255 255 255 255 
0.157635 0.35589 0.0516841 0.707807 0.700558 -0.090709 255 255 255 255 
-0.0096317 -0.892191 -0.383959 0.0572314 -0.927178 -0.370225 255 255 255 255 
0.189363 -0.930242 -0.0093142 0.489069 0.216927 0.84484 255 255 255 255 
-0.141035 -0.991112 -0.00880083 -0.277183 -0.952043 0.129555 255 255 255 255 
0.19268 -0.885672 -0.0281754 0.517997 0.348678 0.781091 255 255 255 255 
0.017607 -0.73583 0.00673001 0.154283 -0.284874 0.946068 255 255 255 255 
-0.0628313 -0.816483 0.00412808 -0.11095 0.056204 0.992235 255 255 255 255 
-0.0930261 -0.961453 -0.163434 0.0490231 -0.981001 -0.187707 255 255 255 255 
0.0920882 -0.234288 0.140904 0.511868 -0.333067 0.79187 255 255 255 255 
0.128321 -0.542024 -0.0300663 0.849693 -0.133971 0.509973 255 255 255 255 
0.147854 -0.795498 -0.371433 0.320964 0.71825 -0.617332 255 255 255 255 
0.118919 0.381074 0.0169727 0.582378 0.754736 -0.302009 255 255 255 255 
-0.00616351 0.214284 -0.236487 -0.88277 -0.416315 -0.217714 255 255 255 255 
0.161888 -0.094987 -0.113794 0.844786 -0.0515651 -0.532614 255 255 255 255 
-0.0339268 0.425031 0.214236 -0.0836472 0.366211 0.926765 255 255 255 255 
0.111208 -0.824091 -0.410621 0.187131 0.534452 -0.824223 255 255 255 255 
0.0413572 -0.825642 0.00634167 0.0368242 0.151264 0.987807 255 255 255 255 
-0.115136 -0.588919 -0.322804 -0.244013 0.335076 -0.910045 255 255 255 255 
-0.0477695 -0.606646 -0.319484 0.339711 0.243 -0.908597 255 255 255 255 
0.0283485 0.25334 0.280035 -0.140808 0.084982 0.986383 255 255 255 255 
-0.0616324 -0.824266 0.00464703 -0.106204 0.0722604 0.991715 255 255 255 255 
0.0153686 0.374359 -0.0336206 -0.0731193 0.732646 -0.676671 255 255 255 255 
0.0271901 -0.980477 0.0514726 0.0450848 -0.10168 0.993795 255 255 255 255 
0.211357 0.492124 -0.125578 0.939723 -0.204303 0.274193 255 255 255 255 
0.149353 0.277718 0.227949 0.669708 0.367208 0.645484 255 255 255 255 
0.0258386 -0.648231 -0.298278 0.358229 0.289023 -0.887771 255 255 255 255 
0.157303 0.323862 0.174862 0.748261 0.517826 0.414683 255 255 255 255 
-0.145129 -0.0823059 0.162034 -0.740976 0.0899806 0.665476 255 255 255 255 
-0.0458386 -0.859374 -0.455459 0.127344 -0.631363 -0.76496 255 255 255 255 
0.146763 -0.961369 -0.104776 0.0836296 -0.972644 -0.216724 255 255 255 255 
0.146971 -0.984569 -0.00934903 0.0683878 -0.967676 -0.242747 255 255 255 255 
0.139342 -0.662883 -0.040915 0.765465 0.0883415 0.637385 255 255 255 255 
-0.0636456 -0.788791 0.00337686 -0.119921 -0.0182595 0.992616 255 255 255 255 
0.240856 -0.820038 -0.311571 0.704842 0.608865 -0.363981 255 255 255 255 
0.121626 -0.972963 -0.0667528 0.108431 -0.964713 -0.239939 255 255 255 255 
-0.161001 -0.508152 -0.237835 -0.833496 0.269608 -0.482281 255 255 255 255 
-0.0969671 0.319253 0.186152 -0.92265 -0.17041 0.345945 255 255 255 255 
0.114543 0.400511 0.0931274 0.597423 0.79949 0.0624623 255 255 255 255 
0.0865543 0.129167 -0.154519 0.224972 0.210262 -0.951408 255 255 255 255 
0.152866 -0.348662 -0.0913331 0.96657 -0.0749981 -0.245191 255 255 255 255 
-0.164524 -0.600193 -0.147088 -0.977608 0.0684895 0.198978 255 255 255 255 
0.162972 0.39214 -0.25612 0.669185 0.044173 -0.741781 255 255 255 255 
-0.211598 -0.907512 -0.343905 -0.0923206 -0.942108 -0.322351 255 255 255 255 
-0.16104 -0.904404 -0.361814 -0.0262473 -0.932718 -0.359649 255 255 255 255 
0.114199 -0.548443 -0.00548734 0.858448 -0.237278 0.454716 255 255 255 255 
0.168256 0.323633 0.146425 0.785068 0.548103 0.288534 255 255 255 255 
-0.00746795 0.404272 0.222948 0.0708956 0.355604 0.931944 255 255 255 255 
0.142446 0.660049 0.0833602 -0.126338 -0.880483 0.456933 255 255 255 255 
-0.16846 -0.579979 -0.16709 -0.982444 0.0764554 0.170173 255 255 255 255 
-0.105971 -0.954718 -0.197355 0.016535 -0.974108 -0.225478 255 255 255 255 
-0.162669 0.657269 0.218436 -0.990058 0.0187189 0.13941 255 255 255 255 
-0.176835 -0.953965 -0.186357 -0.0949475 -0.963479 -0.250387 255 255 255 255 
-0.242997 -0.88366 -0.397904 -0.100185 -0.92324 -0.370931 255 255 255 255 
0.0147287 0.41091 0.21123 0.277195 0.543925 0.792028 255 255 255 255 
0.061974 0.060365 -0.172931 0.246549 0.208198 -0.946503 255 255 255 255 
0.0369441 0.285957 -0.108697 -0.0570058 0.510076 -0.858238 255 255 255 255 
0.224297 -0.881641 -0.36596 0.158595 -0.899033 -0.408151 255 255 255 255 
0.0284642 -0.776886 0.00300675 0.048624 0.0158774 0.998691 255 255 255 255 
-0.0210556 0.216512 0.262437 -0.422196 -0.0582887 0.904629 255 255 255 255 
0.180261 -0.828648 -0.0414558 0.590522 0.257887 0.764708 255 255 255 255 
-0.0865484 -0.99262 -0.0111111 -0.0262481 -0.976604 -0.21344 255 255 255 255 
-0.092512 -0.84783 -0.470159 0.179699 -0.307851 -0.93431 255 255 255 255 
-0.126978 -0.671427 -0.357999 -0.232338 0.444514 -0.865117 255 255 255 255 
0.142604 -0.61815 -0.213574 0.754179 0.382957 -0.533439 255 255 255 255 
0.23777 -0.881943 -0.360238 0.273062 -0.805555 -0.52585 255 255 255 255 
0.109044 0.275739 -0.210067 0.979694 0.0159299 0.199866 255 255 255 255 
-0.25943 -0.914017 -0.30668 -0.105101 -0.957568 -0.268362 255 255 255 255 
0.128252 0.69537 0.151236 0.576934 -0.540439 0.612432 255 255 255 255 
0.274156 -0.856594 -0.146278 0.79589 0.519336 0.311206 255 255 255 255 
-0.0893703 -0.577331 0.0347425 -0.353448 -0.285599 0.89079 255 255 255 255 
0.0969166 -0.951041 -0.161236 0.0588108 -0.964508 -0.257421 255 255 255 255 
-0.135329 -0.701114 -0.0280557 -0.771346 -0.166632 0.614215 255 255 255 255 
0.17158 -0.782234 -0.34177 0.430155 0.685135 -0.587841 255 255 255 255 
0.10831 0.373514 -0.0121586 0.521788 0.680937 -0.513869 255 255 255 255 
0.281212 -0.852449 -0.26316 0.776579 0.601496 -0.187426 255 255 255 255 
-0.118212 0.640658 0.27015 -0.218489 -0.398091 0.890947 255 255 255 255 
-0.29002 -0.908161 -0.19107 -0.877806 0.0401712 0.477328 255 255 255 255 
-0.206617 -0.967722 -0.100374 -0.175187 -0.972414 -0.154018 255 255 255 255 
-0.119002 -0.0950112 0.183725 -0.475529 -0.103108 0.873636 255 255 255 255 
0.0394065 -0.988378 -0.0387618 0.0331765 -0.971365 -0.235264 255 255 255 255 
0.207514 0.276006 0.0544978 0.957785 0.271704 -0.0939446 255 255 255 255 
-0.00348222 0.25427 -0.235191 -0.766884 0.601581 0.223584 255 255 255 255 
-0.229585 -0.949196 -0.183165 -0.137231 -0.964235 -0.226755 255 255 255 255 
0.15983 0.285929 -0.0483401 0.80905 0.45299 -0.374485 255 255 255 255 
0.133384 -0.866692 -0.00361474 0.365174 0.245624 0.897952 255 255 255 255 
0.0166789 -0.719411 0.0118219 0.158776 -0.0813169 0.98396 255 255 255 255 
0.139307 -0.889129 -0.36219 0.0796871 -0.936813 -0.340634 255 255 255 255 
-0.154808 -0.980557 -0.0617994 -0.0651978 -0.984603 -0.162193 255 255 255 255 
0.257697 -0.937652 -0.171612 0.0898225 -0.961933 -0.258104 255 255 255 255 
0.0503929 -0.97509 -0.0854324 0.05157 -0.95974 -0.276114 255 255 255 255 
0.173797 0.62034 -0.0617083 -0.118938 0.747039 -0.654054 255 255 255 255 
0.125629 -0.975286 0.0281897 0.321507 0.0201904 0.946692 255 255 255 255 
0.060904 0.284886 -0.211695 -0.797469 0.602972 -0.0216297 255 255 255 255 
0.0862137 -0.802732 -0.399075 0.136347 0.670525 -0.72925 255 255 255 255 
0.101282 -0.780982 -0.00481035 0.271328 0.0750389 0.959557 255 255 255 255 
0.111399 -0.829929 -0.00343619 0.286716 0.143905 0.947146 255 255 255 255 
0.214426 0.246849 0.105649 0.937308 0.244921 0.247925 255 255 255 255 
-0.0971504 0.30381 0.0592421 -0.985676 -0.151714 -0.0736638 255 255 255 255 
-0.275105 -0.916695 -0.166772 -0.836088 -0.0150731 0.548388 255 255 255 255 
-0.135384 -0.175221 0.163528 -0.418704 -0.168133 0.892423 255 255 255 255 
-0.129539 -0.904843 0.00411398 -0.490592 0.260739 0.831466 255 255 255 255 
0.0972357 0.0753929 0.251972 0.293797 -0.256738 0.920744 255 255 255 255 
0.132424 0.275038 -0.0789012 0.444326 0.393725 -0.804708 255 255 255 255 
0.274663 -0.847784 -0.274329 0.790785 0.573625 -0.213572 255 255 255 255 
0.158907 -0.620491 -0.0876805 0.922864 0.177 0.342042 255 255 255 255 
0.128795 -0.673948 -0.0288988 0.668892 0.0502106 0.741662 255 255 255 255 
0.292944 -0.914648 -0.122886 0.866623 0.231807 0.441849 255 255 255 255 
0.156203 0.283027 -0.0608074 0.70191 0.442176 -0.558393 255 255 255 255 
0.0883967 0.27168 -0.151982 0.84306 0.437134 0.313312 255 255 255 255 
0.0567611 -0.652517 -0.288473 0.314019 0.385777 -0.867507 255 255 255 255 
0.0481149 -0.953484 -0.162318 0.0502356 -0.964666 -0.258641 255 255 255 255 
0.0703943 -0.944155 -0.193003 0.0566182 -0.966212 -0.251452 255 255 255 255 
-0.0920333 0.180363 0.0273367 -0.992392 0.105523 0.0634214 255 255 255 255 
0.0275077 0.276182 -0.245732 -0.312762 0.764414 0.563783 255 255 255 255 
0.0459586 -0.730749 0.00297411 0.11137 -0.225557 0.967843 255 255 255 255 
-0.172812 -0.167024 0.136399 -0.747889 -0.0715958 0.659952 255 255 255 255 
0.283176 -0.922045 -0.218983 0.107432 -0.95844 -0.264292 255 255 255 255 
0.0767973 0.146241 0.271876 0.196118 -0.168726 0.965955 255 255 255 255 
-0.158359 -0.905954 -0.357973 -0.0244951 -0.933755 -0.357073 255 255 255 255 
0.0456658 0.217974 -0.275683 0.180125 -0.667381 -0.722604 255 255 255 255 
0.196341 0.282885 0.131833 0.908523 0.298664 0.292208 255 255 255 255 
-0.109454 -0.609193 -0.331576 -0.155069 0.340109 -0.927512 255 255 255 255 
0.186271 0.644161 -0.0274032 0.621491 0.66353 -0.416506 255 255 255 255 
-0.220021 -0.933663 -0.247188 -0.0996707 -0.962272 -0.253175 255 255 255 255 
-0.14835 -0.968098 0.00399381 -0.618646 -0.0734514 0.782229 255 255 255 255 
0.135089 0.326451 0.203141 0.666755 0.582545 0.464842 255 255 255 255 
0.118961 0.188084 0.264488 0.44937 -0.067078 0.890824 255 255 255 255 
-0.0692215 -0.933072 -0.271738 0.0717514 -0.957409 -0.279679 255 255 255 255 
0.0741687 -0.965116 -0.115131 0.0683316 -0.961507 -0.266147 255 255 255 255 
-0.170046 -0.928339 -0.286616 -0.0860487 -0.961152 -0.262263 255 255 255 255 
0.137521 0.127836 -0.127369 0.624582 0.129718 -0.770111 255 255 255 255 
-0.105511 -0.10092 0.189296 -0.378666 -0.147587 0.91369 255 255 255 255 
-0.0697043 -0.0430258 0.211306 -0.32241 -0.132553 0.937273 255 255 255 255 
-0.0922855 0.702325 0.125134 0.0256956 -0.198344 -0.979796 255 255 255 255 
0.218003 0.241808 0.0932734 0.964317 0.228739 0.13331 255 255 255 255 
0.0646179 -0.82883 0.00548897 0.0925705 0.128245 0.987413 255 255 255 255 
-0.0779377 0.655116 0.274389 0.33327 -0.544193 0.769925 255 255 255 255 
0.189156 0.658183 0.028112 0.92279 0.315233 0.221555 255 255 255 255 
-0.094694 0.279701 0.0994355 -0.984114 -0.177531 -0.00166709 255 255 255 255 
0.148522 0.210209 -0.0967502 0.668599 0.232661 -0.706289 255 255 255 255 
-0.172035 -0.12304 0.042464 -0.911563 0.261657 -0.317157 255 255 255 255 
0.0193198 -0.973517 -0.0937767 0.00839551 -0.961771 -0.273725 255 255 255 255 
-0.101876 0.383302 0.201741 -0.815783 -0.191658 0.545679 255 255 255 255 
0.0324377 -0.839345 -0.436423 0.327416 0.117078 -0.937599 255 255 255 255 
0.199401 0.20527 -0.0305353 0.854573 0.154532 -0.495807 255 255 255 255 
-0.105507 0.0796031 0.123045 -0.955571 0.283923 0.0791953 255 255 255 255 
0.0994972 0.408516 0.0653571 0.528295 0.844817 -0.0847882 255 255 255 255 
-0.00839128 -0.97078 -0.103433 -0.0099266 -0.968757 -0.247814 255 255 255 255 
0.153798 -0.751343 -0.31972 0.42636 0.645234 -0.633948 255 255 255 255 
0.244938 -0.91272 -0.0591215 0.698426 0.289858 0.654357 255 255 255 255 
-0.0412377 -0.915389 0.0293645 -0.072654 0.340228 0.937532 255 255 255 255 
-0.0174477 -0.975348 -0.0846754 -0.0324565 -0.968389 -0.247324 255 255 255 255 
-0.113157 0.0489891 -0.119542 -0.829311 0.205165 -0.51976 255 255 255 255 
0.20768 0.273094 0.049166 0.951481 0.282035 -0.123042 255 255 255 255 
-0.0160354 0.108154 -0.16588 -0.14692 0.285166 -0.947151 255 255 255 255 
-0.0743285 -0.113358 0.19754 -0.25968 -0.191113 0.946595 255 255 255 255 
0.222709 0.187514 0.03028 0.983832 0.0521262 -0.171338 255 255 255 255 
0.214011 0.0191439 0.0482503 0.984719 -0.153861 0.0815778 255 255 255 255 
-0.142289 -0.149276 -0.0888808 -0.982155 0.0750455 -0.172454 255 255 255 255 
0.0315643 -0.997577 0.00433781 0.0277482 -0.986772 -0.159723 255 255 255 255 
0.121836 -0.920789 -0.271319 0.0663164 -0.964999 -0.253729 255 255 255 255 
0.163879 -0.915149 -0.000519027 0.397104 0.281658 0.873486 255 255 255 255 
0.00755509 -0.571665 -0.287115 0.450744 0.181985 -0.873906 255 255 255 255 
0.126183 0.319984 -0.0557028 0.596898 0.574658 -0.559894 255 255 255 255 
-0.109646 -0.125115 0.183528 -0.361578 -0.157887 0.918876 255 255 255 255 
-0.191306 -0.97643 -0.0544479 -0.579679 -0.78766 0.20872 255 255 255 255 
0.195017 0.641007 -0.00799949 0.840058 0.505228 -0.197602 255 255 255 255 
-0.0049681 -0.917114 -0.312614 0.0538817 -0.958234 -0.280863 255 255 255 255 
0.0629001 0.280019 -0.109595 0.0550914 0.627029 -0.777046 255 255 255 255 
-0.00441777 -0.971769 -0.0997712 -0.00939076 -0.967915 -0.251104 255 255 255 255 
0.22205 0.179428 0.124887 0.983338 -0.00419133 0.18174 255 255 255 255 
